ply
format ascii 1.0
comment VCGLIB generated
element vertex 845
property float x
property float y
property float z
property float nx
property float ny
property float nz
property uchar red
property uchar green
property uchar blue
property uchar alpha
element face 0
property list uchar int vertex_indices
end_header
-0.03232232 -0.00632802 0.00675711 0 0 0 114 114 110 255 
-0.0148223 0.006796982 0.05238211 0 0 0 18 50 122 255 
-0.01732233 0.006172027 0.04363209 0 0 0 74 94 150 255 
-0.01794732 0.005547013 0.04363209 0 0 0 90 94 118 255 
-0.02107233 0.00367203 0.04050711 0 0 0 218 206 202 255 
-0.02044731 0.004296985 0.03675711 0 0 0 226 218 210 255 
-0.01732233 0.009921994 0.0205071 0 0 0 222 202 190 255 
-0.01857233 0.005547013 0.04300711 0 0 0 178 182 198 255 
-0.02044731 0.00367203 0.04238209 0 0 0 214 202 198 255 
-0.01794732 0.01054701 0.02363211 0 0 0 198 178 166 255 
-0.02294731 0.003047016 0.02363211 0 0 0 230 222 210 255 
-0.02669734 -0.003203008 0.0167571 0 0 0 54 50 42 255 
-0.01669732 0.008672025 0.0442571 0 0 0 74 82 114 255 
-0.02044731 0.004296985 0.0323821 0 0 0 210 194 182 255 
-0.02294731 0.00367203 0.02238208 0 0 0 230 218 210 255 
-0.02669734 -7.79964e-05 0.01738209 0 0 0 118 110 102 255 
-0.03169733 -0.003828023 0.006132096 0 0 0 94 94 90 255 
-0.007947326 0.02179703 0.0286321 0 0 0 150 126 110 255 
-0.00857234 0.020547 0.02800709 0 0 0 158 126 110 255 
-0.01982233 0.006796982 0.0323821 0 0 0 222 210 198 255 
-0.02544731 0.00367203 0.01988208 0 0 0 210 202 194 255 
-0.02607232 0.002422001 0.0192571 0 0 0 198 190 182 255 
-0.02607232 0.003047016 0.0167571 0 0 0 150 146 138 255 
-0.0304473 -0.0007030107 0.006132096 0 0 0 26 26 22 255 
-0.03232232 -0.003828023 0.007382095 0 0 0 86 86 82 255 
-0.00857234 0.020547 0.03050709 0 0 0 150 122 102 255 
-0.01232231 0.01742199 0.0361321 0 0 0 158 126 110 255 
-0.0148223 0.01304701 0.04300711 0 0 0 114 110 126 255 
-0.01982233 0.007421996 0.0373821 0 0 0 218 206 194 255 
-0.02044731 0.006796982 0.03550708 0 0 0 222 210 198 255 
-0.02044731 0.005547013 0.03550708 0 0 0 218 206 198 255 
-0.02107233 0.006172027 0.03550708 0 0 0 222 210 198 255 
-0.01794732 0.007421996 0.02113211 0 0 0 214 194 186 255 
-0.02482232 0.004296985 0.0167571 0 0 0 198 190 182 255 
-0.02669734 0.001172032 0.01738209 0 0 0 154 150 150 255 
-0.01794732 0.009921994 0.03550708 0 0 0 206 186 178 255 
-0.01794732 0.01054701 0.0323821 0 0 0 206 190 182 255 
-0.01919734 0.008047011 0.02925709 0 0 0 210 194 186 255 
-0.02044731 0.008672025 0.02925709 0 0 0 218 206 194 255 
-0.02357233 0.006796982 0.02425709 0 0 0 230 222 214 255 
-0.01419732 0.01492199 0.03988209 0 0 0 166 154 154 255 
-0.01669732 0.01242199 0.04113209 0 0 0 186 170 174 255 
-0.01732233 0.01117202 0.04113209 0 0 0 210 202 198 255 
-0.01982233 0.008672025 0.02113211 0 0 0 210 190 182 255 
-0.02232233 0.006796982 0.0217571 0 0 0 222 214 202 255 
-0.02294731 0.008047011 0.0155071 0 0 0 210 198 186 255 
-0.01669732 0.01304701 0.03800708 0 0 0 202 190 182 255 
-0.01669732 0.01367202 0.0361321 0 0 0 190 166 158 255 
-0.01794732 0.01304701 0.02363211 0 0 0 182 162 150 255 
-0.01919734 0.01179698 0.02363211 0 0 0 202 186 174 255 
-0.02044731 0.009921994 0.0217571 0 0 0 210 194 186 255 
-0.02232233 0.00929698 0.0217571 0 0 0 222 218 210 255 
-0.02232233 0.01054701 0.0167571 0 0 0 194 178 162 255 
-0.02357233 0.008672025 0.01613212 0 0 0 206 198 190 255 
-0.01044732 0.01679703 0.04238209 0 0 0 86 74 74 255 
-0.01294732 0.02117201 0.0192571 0 0 0 150 130 118 255 
-0.0148223 0.01992198 0.0192571 0 0 0 158 142 130 255 
-0.01794732 0.018047 0.0205071 0 0 0 210 198 190 255 
-0.01919734 0.01304701 0.0205071 0 0 0 198 178 166 255 
-0.01982233 0.01179698 0.01988208 0 0 0 198 182 170 255 
-0.02419734 0.008672025 0.01988208 0 0 0 194 182 170 255 
-0.01419732 0.02242198 0.0180071 0 0 0 174 162 150 255 
-0.02419734 0.01054701 0.0180071 0 0 0 190 186 178 255 
-0.0148223 0.02117201 0.0180071 0 0 0 170 158 146 255 
-0.01607233 0.020547 0.01863211 0 0 0 162 146 142 255 
-0.02544731 0.009921994 0.0167571 0 0 0 114 110 106 255 
-0.02419734 0.01367202 0.0167571 0 0 0 134 130 126 255 
-0.02232233 0.01867202 0.0167571 0 0 0 82 78 74 255 
-0.02357233 0.01617202 0.0167571 0 0 0 98 94 90 255 
-0.02419734 0.01492199 0.0167571 0 0 0 74 70 66 255 
-0.0304473 0.007421996 0.0167571 0 0 0 38 38 30 255 
-0.02107233 0.01867202 0.01488209 0 0 0 22 14 10 255 
-0.02232233 0.01992198 0.0167571 0 0 0 70 70 66 255 
-0.02294731 0.02117201 0.01613212 0 0 0 58 54 54 255 
-0.02482232 0.01929703 0.0167571 0 0 0 70 70 66 255 
-0.02669734 0.02242198 0.01613212 0 0 0 22 22 22 255 
-0.03232232 0.015547 0.01613212 0 0 0 18 18 14 255 
-0.03107232 0.020547 0.008632094 0 0 0 10 6 2 255 
-0.02919734 0.023047 0.01175711 0 0 0 30 26 22 255 
0.03705268 -0.04570297 0.006132096 0 0 0 130 130 126 255 
0.02517767 -0.04507801 0.00675711 0 0 0 94 90 82 255 
0.02455267 -0.04320297 0.005507112 0 0 0 110 106 98 255 
0.02455267 -0.041953 0.006132096 0 0 0 122 118 110 255 
0.02580267 -0.04007802 0.006132096 0 0 0 118 114 102 255 
0.02455267 -0.04070297 0.006132096 0 0 0 126 122 114 255 
0.00142768 -0.044453 0.006132096 0 0 0 110 114 110 255 
-0.004822329 -0.04382798 0.00675711 0 0 0 114 114 106 255 
-0.006697327 -0.04570297 0.007382095 0 0 0 106 102 94 255 
0.04517767 -0.026328 0.00675711 0 0 0 106 98 94 255 
-0.00357233 -0.04007802 0.007382095 0 0 0 90 90 82 255 
-0.01294732 -0.04320297 0.006132096 0 0 0 134 134 130 255 
-0.00294733 -0.039453 0.007382095 0 0 0 70 66 62 255 
-0.01107234 -0.041953 0.006132096 0 0 0 114 114 110 255 
0.04080267 -0.02570299 0.006132096 0 0 0 106 102 94 255 
-0.00294733 -0.03882799 0.007382095 0 0 0 70 70 62 255 
-0.0148223 -0.04007802 0.008632094 0 0 0 82 78 70 255 
-0.02607232 -0.04320297 0.00675711 0 0 0 98 98 94 255 
-0.01607233 -0.04007802 0.008007109 0 0 0 98 98 90 255 
0.03830267 -0.023828 0.006132096 0 0 0 142 134 130 255 
-0.007322311 -0.03445301 0.0142571 0 0 0 50 46 42 255 
-0.006072327 -0.03445301 0.0155071 0 0 0 54 54 50 255 
-0.01794732 -0.039453 0.008007109 0 0 0 122 122 118 255 
0.03017768 -0.02070299 0.01113209 0 0 0 38 38 46 255 
-0.006072327 -0.03382799 0.01488209 0 0 0 22 22 18 255 
-0.007322311 -0.03445301 0.01488209 0 0 0 38 38 30 255 
-0.01669732 -0.03632799 0.01613212 0 0 0 62 58 54 255 
-0.01732233 -0.03757802 0.0142571 0 0 0 102 106 106 255 
-0.01732233 -0.03757802 0.01113209 0 0 0 54 54 46 255 
0.04330267 -0.01757798 0.009882092 0 0 0 74 70 62 255 
0.03892767 -0.01882801 0.009882092 0 0 0 46 42 38 255 
-0.00357233 -0.03195301 0.0155071 0 0 0 22 18 14 255 
-0.01857233 -0.03695301 0.008632094 0 0 0 70 74 70 255 
0.03830267 -0.01632801 0.01613212 0 0 0 38 34 26 255 
-0.002322331 -0.02945301 0.01738209 0 0 0 46 50 50 255 
-0.01044732 -0.03507802 0.0142571 0 0 0 30 30 18 255 
-0.01982233 -0.03445301 0.0130071 0 0 0 30 34 30 255 
0.03767768 -0.01820299 0.0142571 0 0 0 50 46 38 255 
-0.005447328 -0.02945301 0.0180071 0 0 0 34 30 22 255 
-0.0148223 -0.03257803 0.0167571 0 0 0 26 22 18 255 
-0.006072327 -0.028828 0.0180071 0 0 0 34 30 22 255 
0.03642768 -0.015703 0.0155071 0 0 0 58 54 50 255 
-0.01919734 -0.03257803 0.01363209 0 0 0 78 78 74 255 
0.04892766 -0.01007799 0.006132096 0 0 0 82 82 74 255 
-0.01982233 -0.03257803 0.01113209 0 0 0 58 62 58 255 
0.04892766 -0.009452973 0.006132096 0 0 0 86 82 78 255 
-0.02169734 -0.03257803 0.00675711 0 0 0 122 122 118 255 
0.02955267 -0.01507798 0.0167571 0 0 0 86 86 78 255 
0.05142768 -0.006952975 0.006132096 0 0 0 102 102 98 255 
0.03830267 -0.01132802 0.01613212 0 0 0 22 14 14 255 
0.005177677 -0.02132801 0.02800709 0 0 0 154 150 154 255 
0.03767768 -0.01007799 0.01613212 0 0 0 22 18 14 255 
-0.01982233 -0.02945301 0.01488209 0 0 0 122 126 122 255 
-0.01044732 -0.02570299 0.01613212 0 0 0 42 38 30 255 
-0.02107233 -0.03070298 0.009257108 0 0 0 70 70 66 255 
-0.02107233 -0.02757797 0.0142571 0 0 0 102 102 102 255 
0.03705268 -0.008828018 0.0167571 0 0 0 26 22 22 255 
0.00142768 -0.02007798 0.0336321 0 0 0 206 206 206 255 
-0.02044731 -0.026328 0.0155071 0 0 0 82 82 78 255 
-0.02107233 -0.02695302 0.0155071 0 0 0 110 110 106 255 
-0.02169734 -0.028828 0.007382095 0 0 0 62 66 58 255 
0.00142768 -0.02007798 0.0323821 0 0 0 194 190 190 255 
-0.005447328 -0.02195302 0.02675709 0 0 0 230 222 206 255 
-0.02169734 -0.02820298 0.01175711 0 0 0 110 110 110 255 
-0.02419734 -0.028828 0.00675711 0 0 0 134 134 130 255 
0.03517768 -0.007577989 0.01613212 0 0 0 58 54 50 255 
-0.0004473329 -0.02070299 0.0348821 0 0 0 178 178 182 255 
-0.001697332 -0.02070299 0.03425711 0 0 0 198 194 178 255 
-0.005447328 -0.02257797 0.02488211 0 0 0 202 194 170 255 
-0.005447328 -0.02195302 0.02363211 0 0 0 222 214 198 255 
-0.007947326 -0.02320299 0.02113211 0 0 0 182 170 146 255 
-0.00857234 -0.02320299 0.01988208 0 0 0 206 198 182 255 
-0.02169734 -0.02570299 0.01488209 0 0 0 94 94 86 255 
-0.02169734 -0.02757797 0.0130071 0 0 0 18 22 14 255 
0.00142768 -0.01945302 0.03675711 0 0 0 170 182 206 255 
-0.02169734 -0.02507797 0.0155071 0 0 0 94 94 90 255 
-0.02169734 -0.02820298 0.009882092 0 0 0 62 66 62 255 
-0.01169732 -0.02257797 0.01738209 0 0 0 210 206 194 255 
-0.009197325 -0.02195302 0.01988208 0 0 0 210 202 186 255 
-0.02419734 -0.026328 0.007382095 0 0 0 106 102 98 255 
-0.01607233 -0.02320299 0.0167571 0 0 0 46 46 38 255 
-0.02357233 -0.02570299 0.0130071 0 0 0 38 38 34 255 
-0.02294731 -0.02570299 0.00675711 0 0 0 58 54 46 255 
-0.02232233 -0.02320299 0.0155071 0 0 0 90 90 86 255 
-0.02044731 -0.023828 0.0167571 0 0 0 70 70 70 255 
-0.02169734 -0.023828 0.01613212 0 0 0 126 126 118 255 
-0.02357233 -0.02507797 0.01363209 0 0 0 46 46 42 255 
-0.006697327 -0.01945302 0.03300709 0 0 0 202 198 182 255 
-0.01357234 -0.02070299 0.0167571 0 0 0 214 206 194 255 
-0.02044731 -0.026328 0.01488209 0 0 0 102 106 106 255 
-0.02357233 -0.02570299 0.01113209 0 0 0 34 34 30 255 
-0.02107233 -0.02257797 0.0167571 0 0 0 62 62 54 255 
-0.02232233 -0.02257797 0.0155071 0 0 0 110 110 102 255 
-0.02544731 -0.023828 0.01738209 0 0 0 18 14 10 255 
-0.02482232 -0.023828 0.01363209 0 0 0 38 38 34 255 
-0.00857234 -0.01820299 0.03675711 0 0 0 178 178 174 255 
-0.01232231 -0.02007798 0.01738209 0 0 0 226 218 210 255 
-0.02044731 -0.02257797 0.01613212 0 0 0 50 50 42 255 
-0.02357233 -0.02132801 0.0142571 0 0 0 86 86 78 255 
-0.02419734 -0.02257797 0.009882092 0 0 0 54 54 50 255 
-0.02419734 -0.02320299 0.009257108 0 0 0 94 94 86 255 
0.05205268 0.004296985 0.00675711 0 0 0 138 142 142 255 
-0.01419732 -0.01882801 0.01988208 0 0 0 230 226 218 255 
-0.02169734 -0.02195302 0.01613212 0 0 0 94 94 86 255 
-0.02169734 -0.02070299 0.01488209 0 0 0 62 62 54 255 
-0.02357233 -0.02320299 0.0130071 0 0 0 42 42 34 255 
-0.005447328 -0.015703 0.05113208 0 0 0 22 62 166 255 
-0.02607232 -0.02257797 0.00675711 0 0 0 118 114 110 255 
-0.02732232 -0.02195302 0.00675711 0 0 0 110 106 102 255 
0.04955268 0.006172027 0.00675711 0 0 0 130 130 126 255 
0.003302678 -0.01007799 0.07488209 0 0 0 162 154 142 255 
-0.01732233 -0.01820299 0.0167571 0 0 0 162 154 138 255 
-0.02419734 -0.01945302 0.01488209 0 0 0 114 114 106 255 
-0.02482232 -0.01945302 0.0142571 0 0 0 82 82 74 255 
-0.02544731 -0.01695303 0.01488209 0 0 0 118 118 110 255 
0.003927678 -0.01007799 0.06925708 0 0 0 166 154 134 255 
-0.01232231 -0.013203 0.04863209 0 0 0 14 30 70 255 
-0.006072327 -0.01257798 0.05800709 0 0 0 10 30 82 255 
-0.02607232 -0.01820299 0.01175711 0 0 0 66 66 62 255 
-0.009822309 -0.01257798 0.0455071 0 0 0 38 86 206 255 
-0.009822309 -0.013203 0.04488209 0 0 0 38 86 198 255 
-0.01044732 -0.01257798 0.04363209 0 0 0 34 78 178 255 
-0.02669734 -0.01382801 0.01488209 0 0 0 126 130 122 255 
-0.02044731 -0.01382801 0.01738209 0 0 0 186 174 162 255 
-0.02732232 -0.01382801 0.0142571 0 0 0 70 70 66 255 
-0.00857234 -0.008828018 0.0661321 0 0 0 54 78 138 255 
-0.01544732 -0.01257798 0.04175711 0 0 0 206 210 206 255 
-0.01607233 -0.01195297 0.03988209 0 0 0 194 182 166 255 
-0.02607232 -0.01445297 0.01363209 0 0 0 58 58 54 255 
-0.02669734 -0.01382801 0.009257108 0 0 0 58 54 50 255 
-0.0004473329 -0.007577989 0.08113211 0 0 0 198 182 146 255 
-0.006697327 -0.008828018 0.0598821 0 0 0 26 98 234 255 
-0.01607233 -0.01132802 0.03988209 0 0 0 142 154 174 255 
-0.007322311 -0.008203004 0.06550711 0 0 0 34 58 118 255 
-0.02669734 -0.01445297 0.0142571 0 0 0 18 18 14 255 
-0.00857234 -0.008203004 0.06550711 0 0 0 26 50 102 255 
-0.007947326 -0.007577989 0.06175709 0 0 0 34 98 226 255 
-0.02732232 -0.01132802 0.0155071 0 0 0 118 118 114 255 
-0.02919734 -0.013203 0.00675711 0 0 0 94 94 94 255 
-0.02794731 -0.01257798 0.008632094 0 0 0 90 86 86 255 
-0.02857232 -0.01007799 0.01488209 0 0 0 110 110 106 255 
0.008302674 -0.003203008 0.09175712 0 0 0 134 118 94 255 
-0.0004473329 -0.008203004 0.07988209 0 0 0 210 202 174 255 
-0.01607233 -0.01007799 0.04113209 0 0 0 210 218 238 255 
-0.02232233 -0.01007799 0.0167571 0 0 0 182 174 162 255 
-0.01044732 -0.006952975 0.06925708 0 0 0 102 134 202 255 
-0.01732233 -0.01007799 0.03925711 0 0 0 150 162 190 255 
-0.02794731 -0.01132802 0.01363209 0 0 0 22 18 18 255 
-0.01669732 -0.008828018 0.04175711 0 0 0 214 218 234 255 
-0.02732232 -0.008828018 0.0155071 0 0 0 82 78 74 255 
-0.01232231 -0.008203004 0.06988209 0 0 0 30 70 142 255 
-0.01419732 -0.00632802 0.04113209 0 0 0 34 58 126 255 
-0.02294731 -0.008203004 0.0180071 0 0 0 238 234 226 255 
-0.02732232 -0.008828018 0.0155071 0 0 0 126 126 122 255 
-0.02794731 -0.01007799 0.007382095 0 0 0 38 38 38 255 
-0.0004473329 -0.003203008 0.0936321 0 0 0 230 218 170 255 
-0.001072317 -0.00195298 0.0948821 0 0 0 242 226 190 255 
0.0001776814 -0.005077992 0.0805071 0 0 0 214 198 162 255 
-0.006697327 -0.003828023 0.0686321 0 0 0 214 198 182 255 
-0.004822329 -0.00195298 0.03800708 0 0 0 34 98 222 255 
-0.005447328 -0.00195298 0.0348821 0 0 0 34 102 222 255 
-0.02169734 -0.007577989 0.01613212 0 0 0 190 182 166 255 
-0.02294731 -0.008203004 0.0180071 0 0 0 226 222 218 255 
-0.02294731 -0.007577989 0.0155071 0 0 0 198 190 178 255 
0.005802676 -0.001328025 0.09425712 0 0 0 194 178 150 255 
0.005177677 -0.001328025 0.09425712 0 0 0 198 178 146 255 
-0.001697332 -0.003203008 0.0936321 0 0 0 238 222 182 255 
-0.02919734 -0.008828018 0.00675711 0 0 0 50 54 50 255 
0.0001776814 -0.003203008 0.0923821 0 0 0 230 210 162 255 
-0.001072317 -0.003203008 0.09300709 0 0 0 234 218 170 255 
-0.00294733 -0.003203008 0.0923821 0 0 0 234 222 178 255 
-0.006072327 -7.79964e-05 0.03425711 0 0 0 22 82 202 255 
-0.0148223 -0.004452977 0.0480071 0 0 0 30 74 162 255 
-0.01107234 -0.003203008 0.05488211 0 0 0 26 78 186 255 
-0.01044732 -0.003828023 0.0517571 0 0 0 30 78 186 255 
-0.006072327 0.0005470179 0.03425711 0 0 0 22 78 190 255 
-0.01669732 -0.00632802 0.04238209 0 0 0 114 130 162 255 
-0.02919734 -0.008203004 0.01488209 0 0 0 122 118 114 255 
0.005802676 0.0005470179 0.09425712 0 0 0 170 154 126 255 
0.005177677 0.0005470179 0.0948821 0 0 0 214 194 162 255 
-0.009197325 -0.005077992 0.05113208 0 0 0 26 74 178 255 
-0.01169732 -0.005077992 0.0517571 0 0 0 22 70 162 255 
-0.0148223 -0.00632802 0.04863209 0 0 0 46 86 170 255 
-0.02419734 -0.00632802 0.0167571 0 0 0 174 170 162 255 
-0.02794731 -0.00632802 0.01613212 0 0 0 134 134 126 255 
0.005802676 0.0005470179 0.09425712 0 0 0 186 174 150 255 
-0.001697332 -7.79964e-05 0.09425712 0 0 0 238 214 170 255 
-0.006697327 -0.003203008 0.08675709 0 0 0 234 218 174 255 
-0.009197325 -0.003828023 0.05238211 0 0 0 18 62 158 255 
-0.01544732 -0.004452977 0.04175711 0 0 0 34 50 102 255 
-0.02232233 -0.005077992 0.01613212 0 0 0 178 162 142 255 
-0.02482232 -0.005703006 0.0167571 0 0 0 194 186 178 255 
-0.02544731 -0.005703006 0.0167571 0 0 0 146 142 138 255 
-0.02794731 -0.00632802 0.0180071 0 0 0 42 38 34 255 
0.0008026659 -7.79964e-05 0.0948821 0 0 0 234 210 166 255 
-0.01232231 -0.003828023 0.06800711 0 0 0 78 110 166 255 
-0.01107234 -0.005077992 0.04863209 0 0 0 22 66 158 255 
-0.01607233 -0.003828023 0.04175711 0 0 0 42 42 74 255 
-0.01732233 -0.005077992 0.04238209 0 0 0 98 118 174 255 
-0.001697332 0.0005470179 0.09300709 0 0 0 230 202 154 255 
-0.01044732 -0.003828023 0.0505071 0 0 0 18 62 146 255 
-0.01169732 -0.003203008 0.0517571 0 0 0 22 66 158 255 
-0.01419732 -0.003828023 0.04988211 0 0 0 18 66 162 255 
-0.01857233 -0.003828023 0.04175711 0 0 0 166 162 174 255 
-0.0304473 -0.006952975 0.01488209 0 0 0 110 110 106 255 
0.0001776814 0.0005470179 0.0948821 0 0 0 230 206 158 255 
-0.001072317 0.0005470179 0.09425712 0 0 0 230 202 154 255 
-0.01919734 -0.004452977 0.04050711 0 0 0 222 226 238 255 
-0.01982233 -0.00195298 0.0192571 0 0 0 218 210 202 255 
-0.002322331 0.001172032 0.09425712 0 0 0 226 198 150 255 
-0.01044732 -0.001328025 0.07175711 0 0 0 218 206 198 255 
-0.01169732 -0.002577994 0.06925708 0 0 0 150 174 210 255 
-0.01232231 -0.004452977 0.06550711 0 0 0 34 82 178 255 
-0.009822309 -0.002577994 0.0492571 0 0 0 14 58 138 255 
-0.01044732 -0.002577994 0.04863209 0 0 0 14 58 150 255 
-0.01419732 -0.002577994 0.0505071 0 0 0 22 74 178 255 
-0.0148223 -0.002577994 0.0505071 0 0 0 18 66 166 255 
-0.01857233 -0.003203008 0.04300711 0 0 0 150 150 158 255 
-0.01669732 0.002422001 0.01488209 0 0 0 210 194 186 255 
-0.01732233 0.002422001 0.0130071 0 0 0 210 194 186 255 
-0.01857233 -0.001328025 0.0130071 0 0 0 218 202 194 255 
0.004552677 0.00367203 0.0948821 0 0 0 170 150 122 255 
-0.01044732 -0.001328025 0.06988209 0 0 0 210 218 230 255 
-0.01232231 -0.00195298 0.0686321 0 0 0 110 134 182 255 
-0.01419732 0.0005470179 0.0505071 0 0 0 22 62 154 255 
-0.0148223 -0.001328025 0.04863209 0 0 0 22 66 150 255 
-0.01544732 -0.0007030107 0.04738209 0 0 0 22 62 138 255 
-0.01857233 -0.002577994 0.04238209 0 0 0 130 142 166 255 
-0.006697327 0.001796987 0.06925708 0 0 0 222 202 182 255 
-0.01232231 -0.00195298 0.0686321 0 0 0 82 110 166 255 
-0.01232231 -7.79964e-05 0.0530071 0 0 0 14 50 130 255 
-0.01419732 -0.001328025 0.0505071 0 0 0 18 62 158 255 
-0.01607233 -0.001328025 0.04613209 0 0 0 22 62 142 255 
-0.01669732 -7.79964e-05 0.04363209 0 0 0 30 70 146 255 
-0.02044731 -0.004452977 0.02238208 0 0 0 230 222 218 255 
-0.01982233 -0.00195298 0.0217571 0 0 0 222 214 210 255 
-0.02669734 -0.00195298 0.0167571 0 0 0 162 154 150 255 
-0.02857232 -0.003203008 0.01488209 0 0 0 66 66 58 255 
-0.004822329 -7.79964e-05 0.09050709 0 0 0 230 210 162 255 
-0.006072327 -0.0007030107 0.08863211 0 0 0 222 198 158 255 
-0.009822309 -7.79964e-05 0.07300711 0 0 0 238 222 202 255 
-0.01294732 -7.79964e-05 0.0623821 0 0 0 18 66 174 255 
-0.0148223 0.002422001 0.05113208 0 0 0 18 54 146 255 
-0.0148223 0.0005470179 0.04863209 0 0 0 14 58 142 255 
-0.01982233 -7.79964e-05 0.02675709 0 0 0 226 214 206 255 
-0.01857233 0.004296985 0.0192571 0 0 0 206 194 186 255 
-0.03107232 -0.003828023 0.01488209 0 0 0 114 118 110 255 
-0.03232232 -0.002577994 0.01050711 0 0 0 66 66 62 255 
-0.001072317 0.001172032 0.09300709 0 0 0 242 218 182 255 
-0.01107234 -7.79964e-05 0.06988209 0 0 0 210 218 226 255 
-0.01044732 0.0005470179 0.05863211 0 0 0 10 66 166 255 
-0.01419732 0.00367203 0.0530071 0 0 0 10 46 126 255 
-0.01357234 0.002422001 0.04988211 0 0 0 18 66 158 255 
-0.0148223 0.001796987 0.0517571 0 0 0 18 58 150 255 
-0.01544732 0.001796987 0.0517571 0 0 0 18 62 158 255 
-0.01607233 0.002422001 0.0505071 0 0 0 14 54 142 255 
-0.01607233 0.003047016 0.0480071 0 0 0 38 74 158 255 
-0.01794732 0.00367203 0.0205071 0 0 0 206 194 186 255 
-0.01607233 0.002422001 0.0142571 0 0 0 214 198 190 255 
-0.02044731 -7.79964e-05 0.02238208 0 0 0 226 214 206 255 
-0.02107233 -7.79964e-05 0.0205071 0 0 0 222 214 202 255 
-0.0304473 -0.003203008 0.01488209 0 0 0 102 106 102 255 
-0.0304473 -0.003828023 0.01488209 0 0 0 86 86 82 255 
-0.03169733 -0.0007030107 0.0142571 0 0 0 82 82 74 255 
-0.001072317 0.002422001 0.0948821 0 0 0 230 202 162 255 
-0.004197329 0.00367203 0.09050709 0 0 0 218 194 150 255 
-0.006072327 0.0005470179 0.08238208 0 0 0 214 186 150 255 
-0.006072327 0.0005470179 0.0817571 0 0 0 214 190 154 255 
-0.009197325 -0.0007030107 0.07363209 0 0 0 226 210 182 255 
-0.00857234 -0.0007030107 0.07050711 0 0 0 218 202 178 255 
-0.01044732 0.0005470179 0.07050711 0 0 0 206 198 202 255 
-0.01107234 0.001796987 0.05675709 0 0 0 6 42 118 255 
-0.01419732 0.002422001 0.04988211 0 0 0 18 62 158 255 
-0.01607233 0.001796987 0.04738209 0 0 0 26 70 154 255 
-0.01669732 -7.79964e-05 0.04363209 0 0 0 22 50 110 255 
-0.01919734 -0.0007030107 0.04238209 0 0 0 194 198 206 255 
-0.02107233 -0.0007030107 0.04175711 0 0 0 230 222 218 255 
-0.02482232 -7.79964e-05 0.01613212 0 0 0 202 194 182 255 
-0.02544731 -7.79964e-05 0.0155071 0 0 0 174 170 162 255 
-0.03169733 -0.001328025 0.01175711 0 0 0 38 34 30 255 
0.006427675 0.006172027 0.09300709 0 0 0 106 94 78 255 
0.005177677 0.006172027 0.0936321 0 0 0 110 94 78 255 
-0.006697327 0.001172032 0.08863211 0 0 0 234 214 174 255 
-0.006697327 0.0005470179 0.08925709 0 0 0 234 214 174 255 
-0.005447328 0.004921999 0.08113211 0 0 0 186 150 118 255 
-0.009822309 0.001172032 0.07363209 0 0 0 222 206 186 255 
-0.01607233 0.004296985 0.05113208 0 0 0 14 54 138 255 
-0.02044731 -0.0007030107 0.04300711 0 0 0 194 190 194 255 
-0.01919734 0.004296985 0.0180071 0 0 0 214 198 190 255 
-0.02482232 0.001796987 0.0167571 0 0 0 202 190 174 255 
0.005177677 0.004921999 0.09300709 0 0 0 118 90 66 255 
0.003302678 0.006172027 0.0948821 0 0 0 138 110 78 255 
-0.006697327 0.00367203 0.09050709 0 0 0 230 206 170 255 
-0.004822329 0.005547013 0.07988209 0 0 0 186 150 118 255 
-0.005447328 0.005547013 0.07988209 0 0 0 186 150 122 255 
-0.005447328 0.005547013 0.07988209 0 0 0 186 150 122 255 
-0.01044732 0.001172032 0.05863211 0 0 0 6 50 134 255 
-0.01169732 0.0005470179 0.05800709 0 0 0 10 54 142 255 
-0.01357234 0.0005470179 0.05800709 0 0 0 10 62 154 255 
-0.01419732 0.001172032 0.05800709 0 0 0 38 70 138 255 
-0.0148223 -0.001328025 0.0492571 0 0 0 14 66 166 255 
-0.0148223 -0.001328025 0.04863209 0 0 0 14 62 154 255 
-0.01857233 0.0005470179 0.04300711 0 0 0 114 126 158 255 
-0.02044731 0.001796987 0.02300709 0 0 0 222 210 206 255 
-0.02294731 -7.79964e-05 0.01988208 0 0 0 230 222 214 255 
-0.02294731 -0.001328025 0.01738209 0 0 0 230 218 210 255 
-0.02482232 0.001172032 0.01613212 0 0 0 210 198 186 255 
-0.0304473 -0.0007030107 0.0155071 0 0 0 86 86 82 255 
-0.0004473329 0.003047016 0.0948821 0 0 0 242 218 178 255 
-0.004822329 0.001796987 0.0936321 0 0 0 242 218 178 255 
-0.004197329 0.006172027 0.0792571 0 0 0 174 138 110 255 
-0.00357233 0.006796982 0.07863212 0 0 0 166 126 98 255 
-0.005447328 0.006172027 0.07863212 0 0 0 178 138 110 255 
-0.01107234 0.003047016 0.06988209 0 0 0 194 198 218 255 
-0.01357234 0.001796987 0.06550711 0 0 0 30 78 170 255 
-0.01419732 0.003047016 0.05488211 0 0 0 30 70 146 255 
-0.01357234 -0.001328025 0.05113208 0 0 0 18 66 150 255 
-0.01607233 0.001796987 0.0480071 0 0 0 18 62 154 255 
-0.02357233 0.001796987 0.0167571 0 0 0 190 178 162 255 
-0.03232232 -0.001328025 0.01050711 0 0 0 30 30 26 255 
-0.004822329 0.001172032 0.09300709 0 0 0 246 222 186 255 
-0.006072327 0.001796987 0.0911321 0 0 0 234 218 186 255 
-0.01294732 0.001172032 0.06988209 0 0 0 114 130 174 255 
-0.01294732 0.001172032 0.06988209 0 0 0 78 102 158 255 
-0.01544732 0.002422001 0.05238211 0 0 0 26 70 154 255 
-0.01607233 0.004296985 0.0492571 0 0 0 22 62 138 255 
-0.02669734 0.001172032 0.01613212 0 0 0 130 126 122 255 
-0.03169733 0.0005470179 0.0155071 0 0 0 146 146 142 255 
-0.006697327 0.001796987 0.08863211 0 0 0 230 206 170 255 
-0.006697327 0.001796987 0.08863211 0 0 0 230 210 178 255 
-0.01044732 0.00367203 0.06988209 0 0 0 190 190 202 255 
-0.01232231 0.001796987 0.06988209 0 0 0 126 138 174 255 
-0.01544732 0.003047016 0.05238211 0 0 0 18 66 158 255 
-0.0148223 0.003047016 0.0530071 0 0 0 18 66 166 255 
-0.01544732 0.006172027 0.0492571 0 0 0 10 38 118 255 
-0.01857233 0.001796987 0.04300711 0 0 0 134 146 170 255 
-0.02169734 0.001172032 0.04175711 0 0 0 222 210 206 255 
-0.01732233 0.005547013 0.02800709 0 0 0 214 198 190 255 
-0.02107233 0.002422001 0.02300709 0 0 0 230 218 210 255 
-0.02544731 0.00367203 0.0167571 0 0 0 174 170 162 255 
-0.02732232 0.003047016 0.0180071 0 0 0 126 122 114 255 
0.00205268 0.007421996 0.0936321 0 0 0 118 86 62 255 
-0.004822329 0.002422001 0.0936321 0 0 0 242 222 186 255 
-0.004822329 0.002422001 0.09300709 0 0 0 234 210 170 255 
-0.01544732 0.00367203 0.0530071 0 0 0 42 74 142 255 
-0.01169732 0.008672025 0.0142571 0 0 0 226 210 202 255 
-0.00357233 0.004296985 0.0948821 0 0 0 230 206 166 255 
-0.005447328 0.003047016 0.09300709 0 0 0 234 206 166 255 
-0.009197325 0.00367203 0.07488209 0 0 0 222 202 182 255 
-0.01044732 0.005547013 0.06988209 0 0 0 182 182 206 255 
-0.01544732 0.004296985 0.05363208 0 0 0 14 62 154 255 
-0.001697332 0.005547013 0.09425712 0 0 0 190 166 134 255 
-0.004822329 0.00367203 0.09300709 0 0 0 222 198 158 255 
-0.01232231 0.004921999 0.06988209 0 0 0 106 118 150 255 
-0.01232231 0.003047016 0.07050711 0 0 0 162 174 206 255 
-0.01544732 0.002422001 0.05925709 0 0 0 10 62 150 255 
-0.01919734 0.00367203 0.04300711 0 0 0 178 178 194 255 
-0.01919734 0.005547013 0.02488211 0 0 0 210 194 186 255 
0.0001776814 0.006796982 0.09300709 0 0 0 118 90 58 255 
-0.005447328 0.004296985 0.0936321 0 0 0 222 194 158 255 
-0.01107234 0.006172027 0.06988209 0 0 0 162 170 194 255 
-0.0148223 0.00367203 0.05675709 0 0 0 14 62 142 255 
-0.01607233 0.005547013 0.04988211 0 0 0 10 54 146 255 
-0.02044731 0.00367203 0.04363209 0 0 0 202 194 194 255 
-0.01982233 0.004921999 0.04175711 0 0 0 202 194 194 255 
-0.01669732 0.008672025 0.02425709 0 0 0 194 178 170 255 
-0.01669732 0.00929698 0.0217571 0 0 0 202 182 170 255 
-0.01857233 0.006796982 0.02613211 0 0 0 206 186 182 255 
-0.03232232 0.003047016 0.0155071 0 0 0 118 118 114 255 
-0.0004473329 0.006796982 0.09300709 0 0 0 114 82 58 255 
-0.004822329 0.004921999 0.09300709 0 0 0 194 162 130 255 
-0.007947326 0.004296985 0.0842571 0 0 0 214 190 162 255 
-0.009822309 0.004921999 0.08363211 0 0 0 206 178 158 255 
-0.01044732 0.004296985 0.0830071 0 0 0 218 198 170 255 
-0.01607233 0.00367203 0.05488211 0 0 0 30 70 146 255 
-0.01669732 0.003047016 0.04988211 0 0 0 34 82 178 255 
-0.01544732 0.008047011 0.05113208 0 0 0 42 70 142 255 
-0.01919734 0.004921999 0.04300711 0 0 0 190 186 194 255 
-0.01857233 0.008047011 0.02488211 0 0 0 206 190 186 255 
-0.01857233 0.006796982 0.02363211 0 0 0 202 186 182 255 
-0.01919734 0.006172027 0.02300709 0 0 0 206 186 178 255 
-0.02419734 0.006796982 0.0167571 0 0 0 214 206 198 255 
-0.03107232 0.002422001 0.01613212 0 0 0 90 90 86 255 
0.0001776814 0.008047011 0.09175712 0 0 0 102 74 50 255 
-0.001697332 0.006796982 0.09300709 0 0 0 126 94 66 255 
-0.007947326 0.004921999 0.0817571 0 0 0 210 182 158 255 
-0.009197325 0.00367203 0.0805071 0 0 0 230 210 186 255 
-0.01107234 0.006172027 0.06988209 0 0 0 174 178 198 255 
-0.01357234 0.004296985 0.06675708 0 0 0 34 58 126 255 
-0.0148223 0.003047016 0.05738211 0 0 0 10 58 138 255 
-0.01794732 0.00367203 0.06050709 0 0 0 14 58 138 255 
-0.01607233 0.005547013 0.04863209 0 0 0 34 62 130 255 
-0.02107233 0.006796982 0.02113211 0 0 0 214 202 190 255 
-0.02482232 0.00367203 0.02113211 0 0 0 210 202 190 255 
-0.02857232 0.00367203 0.0167571 0 0 0 86 82 82 255 
-0.01294732 0.006172027 0.06925708 0 0 0 50 62 110 255 
-0.01732233 0.008672025 0.0217571 0 0 0 190 170 158 255 
-0.02419734 0.005547013 0.01988208 0 0 0 214 202 190 255 
-0.02607232 0.006172027 0.01738209 0 0 0 178 170 162 255 
-0.007947326 0.008672025 0.06988209 0 0 0 170 154 150 255 
-0.01107234 0.008047011 0.06988209 0 0 0 54 70 98 255 
-0.01232231 0.008047011 0.06300709 0 0 0 22 50 114 255 
-0.01232231 0.008047011 0.06050709 0 0 0 18 42 94 255 
-0.01357234 0.007421996 0.05800709 0 0 0 22 50 106 255 
-0.01544732 0.008672025 0.0505071 0 0 0 30 54 122 255 
-0.01857233 0.006172027 0.04300711 0 0 0 190 186 202 255 
-0.01857233 0.008672025 0.0205071 0 0 0 198 178 170 255 
-0.02419734 0.006172027 0.02300709 0 0 0 202 186 174 255 
-0.02232233 0.00929698 0.01613212 0 0 0 214 202 198 255 
-0.02482232 0.005547013 0.01988208 0 0 0 214 206 198 255 
-0.02982232 0.003047016 0.0167571 0 0 0 78 74 74 255 
-0.004822329 0.01242199 0.06925708 0 0 0 102 90 90 255 
-0.009197325 0.008672025 0.06925708 0 0 0 154 146 154 255 
-0.01044732 0.008047011 0.06988209 0 0 0 114 118 142 255 
-0.01732233 0.005547013 0.0530071 0 0 0 18 58 142 255 
-0.01982233 0.006796982 0.04050711 0 0 0 198 182 174 255 
-0.01732233 0.01117202 0.0217571 0 0 0 186 162 150 255 
-0.01794732 0.01242199 0.02738211 0 0 0 186 170 162 255 
-0.02482232 0.006172027 0.0217571 0 0 0 214 206 194 255 
-0.02419734 0.00929698 0.01738209 0 0 0 218 214 210 255 
0.00142768 0.01304701 0.0780071 0 0 0 50 30 14 255 
-0.007947326 0.005547013 0.0792571 0 0 0 198 166 146 255 
-0.009822309 0.00929698 0.06925708 0 0 0 70 74 94 255 
-0.01857233 0.01179698 0.02238208 0 0 0 194 174 162 255 
-0.01919734 0.01242199 0.0217571 0 0 0 198 178 166 255 
-0.02544731 0.009921994 0.01738209 0 0 0 146 142 138 255 
-0.0004473329 0.01367202 0.0686321 0 0 0 110 94 90 255 
-0.001697332 0.01242199 0.06925708 0 0 0 102 86 86 255 
-0.004197329 0.01242199 0.06925708 0 0 0 98 82 82 255 
-0.01232231 0.008047011 0.06550711 0 0 0 26 42 94 255 
-0.01607233 0.004921999 0.05425709 0 0 0 14 54 134 255 
-0.01544732 0.007421996 0.05113208 0 0 0 10 34 102 255 
-0.01607233 0.007421996 0.05113208 0 0 0 18 54 134 255 
-0.01419732 0.009921994 0.05113208 0 0 0 30 58 122 255 
-0.01544732 0.00929698 0.04863209 0 0 0 22 46 102 255 
-0.005447328 0.01179698 0.06925708 0 0 0 118 106 106 255 
-0.007947326 0.01054701 0.06925708 0 0 0 70 70 82 255 
-0.00857234 0.01054701 0.06925708 0 0 0 42 38 50 255 
-0.009822309 0.00929698 0.0648821 0 0 0 22 30 62 255 
-0.01544732 0.00929698 0.0492571 0 0 0 22 42 98 255 
-0.0148223 0.01054701 0.04738209 0 0 0 14 34 74 255 
-0.02357233 0.01179698 0.0167571 0 0 0 194 186 182 255 
-0.02732232 0.007421996 0.01738209 0 0 0 130 126 118 255 
-0.02669734 0.008047011 0.01738209 0 0 0 94 90 82 255 
-0.001697332 0.01367202 0.06800711 0 0 0 34 30 34 255 
-0.00357233 0.01304701 0.06925708 0 0 0 70 62 66 255 
-0.00357233 0.01304701 0.06925708 0 0 0 90 78 78 255 
-0.006697327 0.01179698 0.06925708 0 0 0 74 66 74 255 
-0.009197325 0.01054701 0.0686321 0 0 0 30 30 42 255 
-0.009822309 0.01054701 0.06925708 0 0 0 22 22 38 255 
-0.01044732 0.01117202 0.0598821 0 0 0 18 34 66 255 
-0.01044732 0.01179698 0.05925709 0 0 0 26 38 70 255 
-0.01419732 0.01117202 0.04863209 0 0 0 14 26 70 255 
-0.0148223 0.01054701 0.04613209 0 0 0 26 38 74 255 
-0.01544732 0.009921994 0.04488209 0 0 0 34 34 54 255 
-0.0148223 0.01117202 0.0455071 0 0 0 54 58 82 255 
-0.01982233 0.008672025 0.02738211 0 0 0 206 190 182 255 
-0.01857233 0.008672025 0.02488211 0 0 0 206 186 174 255 
-0.02419734 0.008047011 0.02300709 0 0 0 194 174 166 255 
-0.02232233 0.01117202 0.01613212 0 0 0 206 194 190 255 
0.00142768 0.01429697 0.0686321 0 0 0 46 34 38 255 
-0.005447328 0.01304701 0.06925708 0 0 0 54 46 54 255 
-0.02169734 0.008672025 0.0348821 0 0 0 218 198 186 255 
-0.02732232 0.00929698 0.0167571 0 0 0 106 102 94 255 
0.0001776814 0.01429697 0.06800711 0 0 0 26 22 30 255 
-0.0004473329 0.01492199 0.0673821 0 0 0 30 18 18 255 
-0.002322331 0.01367202 0.06675708 0 0 0 14 10 22 255 
-0.004822329 0.01492199 0.06050709 0 0 0 18 22 42 255 
-0.01107234 0.01179698 0.05800709 0 0 0 30 42 70 255 
-0.02107233 0.008672025 0.02113211 0 0 0 206 194 182 255 
-0.02357233 0.009921994 0.01863211 0 0 0 214 206 198 255 
-0.001697332 0.01492199 0.06675708 0 0 0 26 18 22 255 
-0.002322331 0.01367202 0.0661321 0 0 0 14 10 22 255 
-0.004822329 0.01617202 0.05613211 0 0 0 18 22 38 255 
-0.01169732 0.01367202 0.0505071 0 0 0 22 30 58 255 
-0.01294732 0.01367202 0.04738209 0 0 0 26 30 58 255 
-0.02294731 0.009921994 0.0192571 0 0 0 210 198 194 255 
-0.01857233 0.01367202 0.02425709 0 0 0 198 182 174 255 
-0.02107233 0.01179698 0.02113211 0 0 0 206 190 182 255 
-0.02607232 0.01117202 0.0167571 0 0 0 118 114 114 255 
-0.006072327 0.01242199 0.06675708 0 0 0 22 22 34 255 
-0.009822309 0.01492199 0.04988211 0 0 0 18 22 46 255 
-0.01232231 0.01429697 0.0442571 0 0 0 50 38 54 255 
-0.01169732 0.01492199 0.04363209 0 0 0 54 42 50 255 
-0.01232231 0.01492199 0.04363209 0 0 0 66 58 66 255 
-0.01544732 0.01367202 0.03863209 0 0 0 194 174 166 255 
-0.02294731 0.01179698 0.01863211 0 0 0 206 194 186 255 
-0.005447328 0.01304701 0.0648821 0 0 0 14 14 30 255 
-0.01044732 0.01617202 0.0455071 0 0 0 34 30 42 255 
-0.01232231 0.01617202 0.04113209 0 0 0 142 126 122 255 
-0.01607233 0.01429697 0.0348821 0 0 0 178 162 154 255 
-0.01419732 0.01617202 0.0373821 0 0 0 158 138 130 255 
-0.01544732 0.01492199 0.0373821 0 0 0 206 182 170 255 
-0.01794732 0.015547 0.02363211 0 0 0 182 166 158 255 
-0.01857233 0.01492199 0.0205071 0 0 0 178 158 150 255 
-0.01982233 0.01429697 0.0205071 0 0 0 194 178 170 255 
-0.03107232 0.01054701 0.01613212 0 0 0 74 74 70 255 
-0.01107234 0.01679703 0.04113209 0 0 0 122 106 106 255 
-0.01107234 0.01742199 0.03925711 0 0 0 146 122 114 255 
-0.01294732 0.01679703 0.03800708 0 0 0 142 122 118 255 
-0.01107234 0.01929703 0.02925709 0 0 0 194 158 138 255 
-0.01544732 0.01617202 0.0336321 0 0 0 170 154 146 255 
-0.009822309 0.01867202 0.03988209 0 0 0 118 102 98 255 
-0.01232231 0.01742199 0.03925711 0 0 0 170 138 118 255 
-0.01794732 0.01617202 0.01988208 0 0 0 190 170 158 255 
-0.02044731 0.018047 0.0167571 0 0 0 102 94 86 255 
-0.02107233 0.01742199 0.0155071 0 0 0 66 62 54 255 
-0.009822309 0.01992198 0.02800709 0 0 0 170 134 118 255 
-0.01232231 0.01929703 0.02925709 0 0 0 174 138 122 255 
-0.01607233 0.02117201 0.01738209 0 0 0 182 170 162 255 
-0.01544732 0.020547 0.01738209 0 0 0 174 162 154 255 
-0.02982232 0.01492199 0.0167571 0 0 0 70 70 70 255 
-0.01044732 0.02242198 0.01738209 0 0 0 154 134 126 255 
-0.01357234 0.020547 0.01613212 0 0 0 174 158 150 255 
-0.03169733 0.01367202 0.01738209 0 0 0 38 34 30 255 
-0.02607232 0.01742199 0.0167571 0 0 0 26 22 22 255 
-0.03107232 0.01617202 0.01613212 0 0 0 42 42 38 255 
-0.02482232 0.01992198 0.01613212 0 0 0 86 86 82 255 
-0.02794731 0.01867202 0.0167571 0 0 0 70 70 70 255 
-0.03107232 0.01742199 0.0167571 0 0 0 50 50 50 255 
-0.02169734 0.023047 0.01738209 0 0 0 26 22 18 255 
-0.02357233 0.02242198 0.01738209 0 0 0 42 38 38 255 
-0.02857232 0.02179703 0.0142571 0 0 0 10 6 2 255 
-0.03107232 0.020547 0.0180071 0 0 0 18 14 10 255 
-0.03232232 0.020547 0.01613212 0 0 0 30 26 22 255 
-0.02107233 -0.04570297 0.00675711 0 0 0 114 114 106 255 
0.01830268 -0.04382798 0.006132096 0 0 0 90 86 78 255 
-0.02794731 -0.04382798 0.006132096 0 0 0 126 122 118 255 
-0.0148223 -0.04070297 0.008007109 0 0 0 82 74 70 255 
0.01642767 -0.03882799 0.006132096 0 0 0 106 102 94 255 
-0.01544732 -0.04007802 0.008632094 0 0 0 86 86 78 255 
-0.01669732 -0.03882799 0.009257108 0 0 0 54 54 50 255 
-0.01857233 -0.039453 0.006132096 0 0 0 74 74 66 255 
0.02142768 -0.03695301 0.006132096 0 0 0 102 98 94 255 
-0.004822329 -0.03820297 0.009882092 0 0 0 62 58 50 255 
-0.01919734 -0.039453 0.00675711 0 0 0 62 62 58 255 
-0.01294732 -0.03695301 0.01488209 0 0 0 30 30 22 255 
-0.01169732 -0.03695301 0.0142571 0 0 0 38 38 30 255 
-0.001697332 -0.03382799 0.01488209 0 0 0 70 70 62 255 
-0.01044732 -0.03632799 0.0142571 0 0 0 38 38 30 255 
0.02017768 -0.03445301 0.006132096 0 0 0 98 94 90 255 
-0.01044732 -0.03570298 0.0130071 0 0 0 26 26 22 255 
-0.01169732 -0.03570298 0.01238209 0 0 0 26 22 14 255 
0.02017768 -0.03382799 0.00675711 0 0 0 94 90 82 255 
-0.004197329 -0.03257803 0.01488209 0 0 0 30 30 18 255 
-0.01732233 -0.03257803 0.00675711 0 0 0 14 14 10 255 
-0.01794732 -0.03257803 0.00675711 0 0 0 14 14 10 255 
-0.00294733 -0.03070298 0.0167571 0 0 0 34 34 26 255 
0.002677679 -0.02820298 0.0167571 0 0 0 58 50 42 255 
0.005177677 -0.02695302 0.0167571 0 0 0 58 50 38 255 
-0.01982233 -0.02820298 0.01613212 0 0 0 146 146 146 255 
0.03455266 -0.02257797 0.009882092 0 0 0 62 58 50 255 
0.04080267 -0.02320299 0.006132096 0 0 0 126 122 114 255 
-0.01357234 -0.026328 0.0192571 0 0 0 26 22 10 255 
0.03705268 -0.02132801 0.009257108 0 0 0 58 50 46 255 
-0.01357234 -0.02570299 0.01613212 0 0 0 38 34 30 255 
-0.01107234 -0.02445302 0.01738209 0 0 0 90 86 70 255 
0.03580268 -0.01945302 0.0130071 0 0 0 42 34 30 255 
-0.02107233 -0.02320299 0.0155071 0 0 0 98 98 94 255 
-0.00294733 -0.02070299 0.0311321 0 0 0 178 174 154 255 
-0.02357233 -0.02445302 0.009257108 0 0 0 74 70 70 255 
-0.02732232 -0.023828 0.00675711 0 0 0 122 122 110 255 
-0.001697332 -0.02007798 0.03425711 0 0 0 170 174 178 255 
-0.004822329 -0.02007798 0.03175712 0 0 0 186 178 154 255 
-0.007947326 -0.02007798 0.03050709 0 0 0 186 174 150 255 
-0.02294731 -0.02320299 0.01238209 0 0 0 46 42 38 255 
-0.02732232 -0.023828 0.00675711 0 0 0 110 110 98 255 
-0.02357233 -0.02070299 0.01488209 0 0 0 150 150 142 255 
-0.02607232 -0.02132801 0.01488209 0 0 0 30 26 22 255 
-0.006072327 -0.01945302 0.0336321 0 0 0 178 170 158 255 
-0.01357234 -0.02007798 0.0205071 0 0 0 190 178 162 255 
-0.02357233 -0.02132801 0.01238209 0 0 0 66 66 58 255 
-0.02482232 -0.02132801 0.0130071 0 0 0 42 42 38 255 
-0.02294731 -0.02007798 0.01488209 0 0 0 146 142 138 255 
-0.02544731 -0.02070299 0.01175711 0 0 0 26 22 18 255 
-0.02607232 -0.01945302 0.01488209 0 0 0 38 38 34 255 
-0.009197325 -0.01757798 0.0348821 0 0 0 178 178 166 255 
-0.009197325 -0.01820299 0.03675711 0 0 0 178 170 150 255 
-0.02544731 -0.01945302 0.0155071 0 0 0 30 30 22 255 
-0.02607232 -0.01945302 0.01238209 0 0 0 34 34 30 255 
-0.02419734 -0.01945302 0.0142571 0 0 0 42 42 38 255 
-0.02607232 -0.01882801 0.0142571 0 0 0 26 26 22 255 
-0.009822309 -0.01695303 0.03988209 0 0 0 154 154 146 255 
-0.01044732 -0.01695303 0.0348821 0 0 0 186 174 162 255 
-0.02669734 -0.01820299 0.01238209 0 0 0 26 26 22 255 
-0.02544731 -0.01882801 0.0130071 0 0 0 22 18 14 255 
-0.01044732 -0.015703 0.04175711 0 0 0 130 142 162 255 
-0.02232233 -0.01632801 0.01613212 0 0 0 62 62 54 255 
-0.02544731 -0.015703 0.0155071 0 0 0 130 130 122 255 
-0.02044731 -0.01445297 0.01738209 0 0 0 214 214 206 255 
0.00205268 -0.01257798 0.06925708 0 0 0 94 82 70 255 
-0.02857232 -0.013203 0.0130071 0 0 0 18 18 14 255 
-0.02107233 -0.01382801 0.01988208 0 0 0 210 206 194 255 
-0.02794731 -0.01257798 0.008007109 0 0 0 18 18 14 255 
-0.02732232 -0.01195297 0.008007109 0 0 0 26 26 22 255 
0.00205268 -0.009452973 0.07363209 0 0 0 206 190 166 255 
-0.01544732 -0.01007799 0.04300711 0 0 0 102 122 150 255 
-0.01544732 -0.01007799 0.04738209 0 0 0 26 42 86 255 
-0.0148223 -0.010703 0.04488209 0 0 0 50 74 118 255 
-0.02857232 -0.009452973 0.01488209 0 0 0 94 94 90 255 
0.0001776814 -0.008828018 0.0755071 0 0 0 210 198 174 255 
-0.01607233 -0.008828018 0.0480071 0 0 0 46 66 114 255 
0.00142768 -0.007577989 0.0842571 0 0 0 206 194 162 255 
-0.02857232 -0.008203004 0.0155071 0 0 0 98 98 90 255 
0.00205268 -0.005703006 0.08863211 0 0 0 186 162 118 255 
-0.01544732 -0.008203004 0.0442571 0 0 0 46 70 130 255 
0.003927678 -0.005077992 0.09300709 0 0 0 154 142 114 255 
-0.007322311 -0.00632802 0.0686321 0 0 0 202 202 182 255 
-0.01294732 -0.004452977 0.0492571 0 0 0 22 62 154 255 
-0.02419734 -0.004452977 0.02113211 0 0 0 226 218 210 255 
-0.01607233 -0.003203008 0.06050709 0 0 0 30 66 146 255 
0.003927678 -0.003828023 0.0923821 0 0 0 190 166 126 255 
-0.01607233 -0.003828023 0.0623821 0 0 0 42 90 194 255 
0.00142768 -0.003203008 0.09300709 0 0 0 226 206 166 255 
-0.01857233 -0.004452977 0.04050711 0 0 0 162 174 202 255 
-0.02669734 -0.00195298 0.0167571 0 0 0 138 134 126 255 
-0.03232232 -0.003828023 0.01175711 0 0 0 66 66 62 255 
0.003927678 -0.002577994 0.0923821 0 0 0 230 214 178 255 
-0.009822309 -0.003203008 0.07050711 0 0 0 210 218 218 255 
-0.00357233 -0.00195298 0.09050709 0 0 0 230 210 166 255 
-0.009822309 -0.00195298 0.07175711 0 0 0 226 218 206 255 
-0.01232231 -0.002577994 0.0686321 0 0 0 66 94 154 255 
0.006427675 -0.0007030107 0.0948821 0 0 0 174 162 142 255 
-0.01107234 -0.0007030107 0.06988209 0 0 0 202 210 218 255 
-0.02419734 -0.001328025 0.0205071 0 0 0 214 206 198 255 
-0.02482232 -0.0007030107 0.0205071 0 0 0 222 214 206 255 
-0.001072317 -0.001328025 0.09300709 0 0 0 230 206 162 255 
-0.02169734 -0.0007030107 0.03550708 0 0 0 218 206 190 255 
-0.01732233 -7.79964e-05 0.04300711 0 0 0 62 82 126 255 
-0.01857233 0.0005470179 0.04300711 0 0 0 138 142 150 255 
-0.01982233 -0.001328025 0.03988209 0 0 0 214 218 222 255 
-0.02107233 -0.0007030107 0.0373821 0 0 0 218 210 202 255 
-0.02169734 -7.79964e-05 0.03800708 0 0 0 218 206 194 255 
-0.01419732 -0.001328025 0.0505071 0 0 0 14 58 146 255 
-0.01982233 -7.79964e-05 0.04175711 0 0 0 202 198 198 255 
-0.02107233 -7.79964e-05 0.03675711 0 0 0 214 202 190 255 
-0.001072317 0.001172032 0.09425712 0 0 0 230 206 154 255 
-0.01857233 -7.79964e-05 0.0648821 0 0 0 30 74 174 255 
-0.01544732 0.001172032 0.04175711 0 0 0 14 30 66 255 
-0.001072317 0.001172032 0.09425712 0 0 0 230 206 154 255 
-0.006072327 -7.79964e-05 0.07863212 0 0 0 214 194 158 255 
-0.01794732 0.001796987 0.04300711 0 0 0 74 94 138 255 
-0.01107234 -0.0007030107 0.07113209 0 0 0 218 214 206 255 
-0.0148223 -7.79964e-05 0.07050711 0 0 0 10 34 86 255 
-0.02482232 0.001172032 0.0205071 0 0 0 214 202 186 255 
-0.01794732 0.002422001 0.04300711 0 0 0 86 106 150 255 
0.005177677 0.002422001 0.0948821 0 0 0 186 162 130 255 
0.005802676 0.002422001 0.0936321 0 0 0 162 138 102 255 
-0.02107233 0.001796987 0.04113209 0 0 0 222 214 218 255 
-0.02669734 0.003047016 0.02113211 0 0 0 194 182 170 255 
-0.02607232 0.003047016 0.01738209 0 0 0 182 178 174 255 
-0.03169733 0.004921999 0.01613212 0 0 0 90 90 90 255 
-0.01107234 0.001796987 0.07300711 0 0 0 214 190 174 255 
-0.02607232 0.003047016 0.0205071 0 0 0 210 198 186 255 
0.00205268 0.003047016 0.0948821 0 0 0 242 214 174 255 
-0.00857234 0.001796987 0.06988209 0 0 0 218 202 186 255 
-0.02607232 0.00367203 0.0217571 0 0 0 226 218 206 255 
-0.02607232 0.00367203 0.01988208 0 0 0 194 186 178 255 
-0.007947326 0.001172032 0.07238209 0 0 0 206 182 162 255 
-0.02294731 0.00367203 0.01988208 0 0 0 218 206 198 255 
0.005177677 0.00367203 0.0936321 0 0 0 170 146 118 255 
-0.01107234 0.004296985 0.07050711 0 0 0 198 198 202 255 
-0.01357234 0.004921999 0.05488211 0 0 0 6 38 110 255 
-0.02169734 0.004296985 0.04238209 0 0 0 222 210 202 255 
-0.02044731 0.004296985 0.04050711 0 0 0 218 206 202 255 
-0.00857234 0.005547013 0.07175711 0 0 0 202 186 170 255 
-0.01732233 0.005547013 0.04300711 0 0 0 66 78 122 255 
-0.02169734 0.004921999 0.04238209 0 0 0 214 198 194 255 
-0.01732233 0.005547013 0.0455071 0 0 0 46 66 122 255 
-0.01794732 0.005547013 0.04300711 0 0 0 94 106 154 255 
-0.02044731 0.006172027 0.04113209 0 0 0 210 190 186 255 
-0.02544731 0.006796982 0.0205071 0 0 0 202 190 182 255 
0.0001776814 0.005547013 0.0923821 0 0 0 206 178 146 255 
0.0001776814 0.005547013 0.09300709 0 0 0 202 170 138 255 
-0.007947326 0.001172032 0.08113211 0 0 0 222 202 170 255 
-0.01044732 0.005547013 0.07175711 0 0 0 198 186 182 255 
-0.006072327 0.00367203 0.0911321 0 0 0 234 210 174 255 
-0.01232231 0.006172027 0.0673821 0 0 0 54 74 126 255 
-0.01232231 0.006172027 0.0686321 0 0 0 26 54 134 255 
-0.01982233 0.008047011 0.04050711 0 0 0 210 198 194 255 
-0.01919734 0.008047011 0.03300709 0 0 0 210 194 186 255 
-0.01357234 0.005547013 0.0611321 0 0 0 6 38 106 255 
-0.01607233 0.007421996 0.04363209 0 0 0 22 38 74 255 
-0.004822329 0.004921999 0.09175712 0 0 0 206 178 146 255 
-0.01232231 0.006172027 0.06550711 0 0 0 26 58 126 255 
-0.01794732 0.007421996 0.03175712 0 0 0 210 194 178 255 
-0.009197325 0.004921999 0.07175711 0 0 0 202 182 174 255 
-0.01107234 0.008047011 0.05488211 0 0 0 6 26 74 255 
-0.01544732 0.00929698 0.05238211 0 0 0 14 42 110 255 
-0.02357233 0.008672025 0.0205071 0 0 0 206 194 186 255 
-0.007947326 0.007421996 0.06988209 0 0 0 170 158 162 255 
-0.01794732 0.00929698 0.04175711 0 0 0 194 178 174 255 
-0.02232233 0.01179698 0.0167571 0 0 0 202 190 174 255 
-0.01982233 0.01117202 0.02800709 0 0 0 210 194 186 255 
-0.007322311 0.00929698 0.07425708 0 0 0 158 134 122 255 
-0.01107234 0.01054701 0.0598821 0 0 0 18 30 62 255 
-0.01169732 0.01117202 0.05675709 0 0 0 14 26 58 255 
-0.01294732 0.01054701 0.05363208 0 0 0 22 42 86 255 
-0.0148223 0.01054701 0.05113208 0 0 0 18 38 90 255 
-0.02169734 0.01242199 0.0167571 0 0 0 194 182 170 255 
-0.0004473329 0.008047011 0.0911321 0 0 0 110 82 62 255 
-0.002322331 0.006796982 0.0923821 0 0 0 118 90 62 255 
-0.006072327 0.01117202 0.07050711 0 0 0 110 94 94 255 
-0.007322311 0.01054701 0.06988209 0 0 0 122 118 130 255 
-0.007947326 0.01117202 0.0661321 0 0 0 14 18 38 255 
-0.01419732 0.01179698 0.04300711 0 0 0 138 130 138 255 
-0.01607233 0.01304701 0.0361321 0 0 0 178 158 150 255 
-0.02169734 0.01367202 0.01738209 0 0 0 198 182 170 255 
-0.01669732 0.01304701 0.0336321 0 0 0 190 170 166 255 
-0.02232233 0.01179698 0.0205071 0 0 0 210 198 194 255 
-0.02357233 0.01429697 0.01738209 0 0 0 158 150 146 255 
-0.03107232 0.01242199 0.01613212 0 0 0 54 54 50 255 
0.00205268 0.01304701 0.06925708 0 0 0 102 86 82 255 
-0.007947326 0.01179698 0.06425709 0 0 0 10 18 42 255 
-0.00857234 0.01304701 0.0598821 0 0 0 18 26 50 255 
-0.009822309 0.01304701 0.05675709 0 0 0 22 34 54 255 
-0.02169734 0.01242199 0.01988208 0 0 0 206 198 190 255 
-0.02294731 0.01492199 0.01738209 0 0 0 150 142 138 255 
-0.02044731 0.01492199 0.0192571 0 0 0 198 186 178 255 
-0.007947326 0.01492199 0.05738211 0 0 0 18 22 42 255 
-0.009197325 0.01429697 0.05363208 0 0 0 18 26 46 255 
0.00205268 0.01367202 0.0673821 0 0 0 26 26 34 255 
0.0008026659 0.01492199 0.06800711 0 0 0 42 34 34 255 
-0.002322331 0.015547 0.0623821 0 0 0 18 22 38 255 
-0.007947326 0.01617202 0.0505071 0 0 0 18 18 38 255 
-0.009197325 0.01742199 0.04363209 0 0 0 58 54 62 255 
-0.006697327 0.01679703 0.0505071 0 0 0 14 18 38 255 
-0.004197329 0.01742199 0.04300711 0 0 0 26 22 30 255 
-0.007322311 0.01867202 0.04300711 0 0 0 62 46 50 255 
-0.007947326 0.018047 0.04300711 0 0 0 66 58 62 255 
-0.01044732 0.01742199 0.04238209 0 0 0 102 90 94 255 
-0.01107234 0.018047 0.04050711 0 0 0 130 118 118 255 
-0.01357234 0.018047 0.0311321 0 0 0 162 138 126 255 
-0.01857233 0.01867202 0.01613212 0 0 0 182 174 166 255 
-0.002322331 0.01742199 0.05363208 0 0 0 14 18 38 255 
-0.004822329 0.01867202 0.0455071 0 0 0 26 22 34 255 
-0.007322311 0.01929703 0.04238209 0 0 0 94 78 82 255 
-0.01607233 0.01867202 0.0180071 0 0 0 142 122 114 255 
-0.01919734 0.01929703 0.0167571 0 0 0 138 126 122 255 
-0.02294731 0.01867202 0.01613212 0 0 0 42 38 38 255 
-0.007322311 0.018047 0.04363209 0 0 0 50 42 46 255 
-0.01982233 0.01992198 0.0167571 0 0 0 90 82 74 255 
-0.02482232 0.01867202 0.0167571 0 0 0 62 58 58 255 
-0.02732232 0.01929703 0.0167571 0 0 0 70 70 70 255 
-0.005447328 0.020547 0.04175711 0 0 0 106 90 90 255 
-0.007322311 0.01992198 0.04050711 0 0 0 138 114 110 255 
-0.007947326 0.01929703 0.04050711 0 0 0 118 98 94 255 
-0.01044732 0.02117201 0.02613211 0 0 0 178 142 126 255 
-0.01732233 0.01617202 0.03175712 0 0 0 170 146 134 255 
-0.01982233 0.01992198 0.0167571 0 0 0 82 74 70 255 
-0.01357234 0.02179703 0.01863211 0 0 0 138 126 118 255 
-0.01169732 0.02242198 0.0167571 0 0 0 150 130 118 255 
-0.01357234 0.02117201 0.01863211 0 0 0 122 106 98 255 
-0.006697327 0.02179703 0.0298821 0 0 0 162 126 106 255 
-0.01232231 0.01867202 0.0373821 0 0 0 166 126 106 255 
-0.0148223 0.01992198 0.02300709 0 0 0 142 122 118 255 
-0.02357233 0.01929703 0.0167571 0 0 0 86 86 82 255 
-0.006697327 0.023047 0.0155071 0 0 0 154 130 122 255 
-0.006697327 0.02242198 0.0155071 0 0 0 150 126 118 255 
-0.02107233 0.02117201 0.01738209 0 0 0 58 54 50 255 
-0.02732232 0.020547 0.0167571 0 0 0 86 86 82 255 
-0.02794731 0.020547 0.01613212 0 0 0 78 74 74 255 
-0.02857232 0.02179703 0.0155071 0 0 0 42 38 38 255 
-0.03107232 0.01992198 0.01738209 0 0 0 26 26 22 255 
-0.03169733 0.01992198 0.01738209 0 0 0 34 34 30 255 
-0.02232233 0.02242198 0.0155071 0 0 0 18 14 10 255 
